ply
format ascii 1.0
comment PCL generated
element vertex 1340
property float x
property float y
property float z
property float intensity
element camera 0
property float view_px
property float view_py
property float view_pz
property float x_axisx
property float x_axisy
property float x_axisz
property float y_axisx
property float y_axisy
property float y_axisz
property float z_axisx
property float z_axisy
property float z_axisz
property float focal
property float scalex
property float scaley
property float centerx
property float centery
property int viewportx
property int viewporty
property float k1
property float k2
end_header
15.997074 -10.974615 1.0718011 3
15.942623 -11.084528 1.0614741 3
15.889061 -11.195358 1.0512166 3
15.825848 -11.299504 1.0404155 3
15.765182 -11.405668 1.0297856 3
15.70462 -11.512116 1.019183 3
6.9913306 -5.2437668 0.51087177 3
6.9595118 -5.2900119 0.50581592 3
15.444517 -12.081826 0.96882123 3
15.369358 -12.178561 0.95752025 3
5.6027493 -4.5859523 0.41436085 3
5.5338135 -4.5887556 0.40799829 3
5.5724211 -4.683672 0.40724358 3
14.898826 -12.905756 0.8820855 3
14.841761 -13.01968 0.87190491 3
4.1758809 -3.924983 0.31547353 3
4.1382923 -3.9409485 0.31146225 3
8.5342846 -8.5568209 0.50344402 3
8.4567966 -8.5869656 0.49537176 3
8.2933025 -8.5272093 0.48354444 3
8.1287937 -8.4636116 0.47180876 3
7.8736668 -8.3007183 0.45630503 3
7.7806396 -8.3072071 0.44793677 3
7.7121544 -8.3394032 0.44066209 3
7.645587 -8.3733034 0.43350255 3
7.6022263 -8.4327879 0.42732579 3
7.5597572 -8.4935646 0.42119178 3
2.7946298 -3.1872756 0.22549328 3
2.7697351 -3.2021489 0.22276339 3
2.7653635 -3.2413318 0.22082502 3
2.7280471 -3.2413728 0.21763992 3
5.2749863 -6.4758134 0.30635536 3
5.1707578 -6.4315586 0.29926383 3
5.1050863 -6.4341354 0.2936132 3
5.041429 -6.4385247 0.28807551 3
4.9406953 -6.3940783 0.28132781 3
4.8637056 -6.3788891 0.27545565 3
4.7973032 -6.3765984 0.26998687 3
4.729928 -6.3721409 0.26453343 3
4.667521 -6.3735647 0.25928244 3
4.6146536 -6.3874373 0.25436416 3
4.5664454 -6.4074259 0.24961364 3
4.5250845 -6.4368834 0.24508518 3
4.4898205 -6.4751163 0.24074304 3
4.4587927 -6.5197644 0.23652229 3
4.4296384 -6.5675969 0.23234993 3
4.395628 -6.6086783 0.22804415 3
4.3640423 -6.6537728 0.22380111 3
4.330986 -6.6970625 0.2195183 3
4.2878451 -6.7250643 0.21499145 3
4.3098292 -6.855844 0.21199167 3
4.2704854 -6.8913412 0.20752522 3
4.2287774 -6.9232206 0.20301345 3
4.1993189 -6.9753637 0.19876599 3
4.157042 -7.0068336 0.19425066 3
1.4464023 -2.5691624 0.13706936 3
1.4310069 -2.5839121 0.13532332 3
1.4145087 -2.596843 0.13355984 3
1.3798575 -2.5773866 0.13151406 3
1.3696411 -2.6014061 0.1298652 3
2.2293961 -5.2470784 0.10539135 3
2.1891017 -5.2484741 0.10231668 3
2.1465137 -5.2440734 0.099273384 3
2.0888898 -5.2034349 0.096322171 3
2.063307 -5.2380328 0.093271337 3
1.6927222 -5.7813258 0.048764326 3
1.662292 -5.8160677 0.045507077 3
1.6274265 -5.8372741 0.04237701 3
1.5938005 -5.8630743 0.039198928 3
1.5694414 -5.9213333 0.035655078 3
1.5397806 -5.9631758 0.032268938 3
1.5169116 -6.0308971 0.028551977 3
1.4675893 -6.0040059 0.025980905 3
0.21048334 -4.0594959 0.0024351105 3
0.016683906 -4.0086436 -0.0079517886 3
-1.0841157 0.38800678 -0.14424509 3
-1.0736079 0.51012981 -0.13486069 3
-1.0746529 0.52079546 -0.13487637 3
-1.0699762 0.52502394 -0.13330185 3
-1.0234456 0.67569101 -0.11872519 3
-1.0286163 0.68349946 -0.12043031 3
-1.0266829 0.68825537 -0.11996669 3
-1.022965 0.69220614 -0.11896347 3
-1.0288553 0.70054471 -0.12091903 3
-1.0259451 0.70489454 -0.12018097 3
-1.0334567 0.71417487 -0.12265662 3
-1.0356773 0.72105193 -0.12351622 3
-1.0369782 0.7275461 -0.12410299 3
-1.0408192 0.73535681 -0.12548321 3
-1.0420135 0.74192584 -0.12605828 3
-1.0457319 0.74984264 -0.12742364 3
-1.0502399 0.75826514 -0.12904525 3
-1.0495586 0.76405603 -0.1290735 3
-1.0454355 0.76803041 -0.12804505 3
-1.0404457 0.77150774 -0.1267553 3
-1.0337523 0.77400589 -0.12494344 3
-1.0278991 0.77690762 -0.12339828 3
-1.0228778 0.78022873 -0.12211818 3
-1.0178442 0.78350306 -0.12084081 3
-1.0044618 0.78185976 -0.1169643 3
-0.99860251 0.78449631 -0.11543835 3
-1.0175753 0.80199909 -0.12168898 3
-1.0025437 0.79914761 -0.11731038 3
-1.0023681 0.80526459 -0.11759173 3
-0.99968922 0.80985737 -0.11709697 3
-1.0092216 0.82220209 -0.12045523 3
-1.0056274 0.82631457 -0.11969507 3
-1.0020109 0.83039951 -0.11893565 3
-1.0080526 0.84085405 -0.12123992 3
-1.0027472 0.84386814 -0.11996601 3
-1.0022342 0.85009265 -0.12021992 3
-1.0088476 0.86126125 -0.12275248 3
-0.99947798 0.86147082 -0.12021083 3
-0.9932946 0.86381435 -0.11868768 3
-0.99576914 0.87229109 -0.11993993 3
-1.0005207 0.88252044 -0.1219383 3
-1.0090796 0.89569116 -0.12517956 3
-0.99730289 0.89397466 -0.12189699 3
-1.0103314 0.91076398 -0.12661734 3
-1.00239 0.91188478 -0.1245869 3
-1.0013628 0.91825426 -0.12480045 3
-1.0025758 0.9264214 -0.12575474 3
-0.9930824 0.92620564 -0.12323721 3
-0.98891068 0.93013597 -0.12245712 3
-0.97945082 0.92976034 -0.11995337 3
-0.9745146 0.93298113 -0.11893346 3
-0.97031081 0.93678248 -0.11816106 3
-0.97053623 0.94430125 -0.11885815 3
-0.96036851 0.94303405 -0.11613122 3
-0.96051753 0.9505372 -0.11682508 3
-0.95329964 0.95167959 -0.11508275 3
-0.94972539 0.95596981 -0.11455863 3
-0.94756973 0.96153259 -0.11451853 3
-0.94537258 0.96709132 -0.11447633 3
-0.94456339 0.97395849 -0.11491378 3
-0.93303275 0.9709245 -0.1117425 3
-0.94206536 0.98706532 -0.11553618 3
-0.92913592 0.98257983 -0.11189517 3
-0.92886686 0.99009109 -0.1125643 3
-0.92019188 0.98948121 -0.11037106 3
-0.9115485 0.98878753 -0.10818584 3
-0.91323972 0.99831593 -0.10956339 3
-0.91006136 1.0030497 -0.10927743 3
-0.93467307 1.0362871 -0.11866183 3
-0.92721117 1.0369642 -0.11693973 3
-0.90904093 1.0263106 -0.11146704 3
-0.92432535 1.0508642 -0.11772934 3
-0.91352808 1.0478536 -0.11484668 3
-0.90476334 1.0468843 -0.11267481 3
-0.90779281 1.0588009 -0.11469761 3
-0.91070294 1.0707812 -0.11670881 3
-0.90769124 1.0762671 -0.11662509 3
-0.9225651 1.1022551 -0.12300607 3
-0.89899755 1.0842605 -0.11553109 3
-0.89840257 1.0926601 -0.11636405 3
-0.89773011 1.1010796 -0.11719107 3
-0.89324439 1.1050285 -0.11663958 3
-0.89244282 1.1134633 -0.11745808 3
-0.89156306 1.1219164 -0.11827069 3
-0.89791369 1.139506 -0.1218031 3
-0.88956785 1.1388749 -0.11987846 3
-0.88485229 1.1427743 -0.11931745 3
-0.88904285 1.1582125 -0.1221398 3
-0.87889373 1.1551354 -0.11954752 3
-0.8746649 1.1597478 -0.11921004 3
-0.87098444 1.1651199 -0.11909624 3
-0.86495507 1.1673337 -0.11808772 3
-0.85663331 1.1663454 -0.11619095 3
-0.85401773 1.1732136 -0.11652429 3
-0.84740376 1.1745046 -0.11530202 3
-0.84525776 1.1821444 -0.11585367 3
-0.84082961 1.1865746 -0.11551823 3
-0.83965802 1.1958224 -0.1165036 3
-0.83785319 1.2042769 -0.11726291 3
-0.83865964 1.2168093 -0.11911239 3
-0.82920027 1.2138597 -0.11679857 3
-0.82402599 1.2173882 -0.1162386 3
-0.81935358 1.2217084 -0.1158972 3
-0.82294941 1.2392342 -0.11902771 3
-0.80477715 1.2219703 -0.11305013 3
-0.79955196 1.225348 -0.11249837 3
-0.7948097 1.2295303 -0.11216321 3
-0.78953815 1.2328467 -0.11161333 3
-0.7852335 1.2378162 -0.11149339 3
-0.78479743 1.2495326 -0.1130835 3
-0.7808547 1.2553346 -0.11317115 3
-0.7787751 1.2645291 -0.1141083 3
-0.77707732 1.274587 -0.11525192 3
-0.77668214 1.2872322 -0.11702403 3
-0.77661657 1.3007684 -0.11899751 3
-0.77137065 1.3048384 -0.11864173 3
-0.77378988 1.3236103 -0.12186081 3
-0.77108002 1.3328856 -0.1227558 3
-0.77269959 1.3508856 -0.12573776 3
-0.76712942 1.3549446 -0.12536415 3
-0.76196098 1.3598498 -0.12519941 3
-0.7614429 1.3744123 -0.1273194 3
-0.75571412 1.3784108 -0.1269412 3
-0.75120306 1.3850337 -0.12718388 3
-0.73759925 1.3720983 -0.12288708 3
-0.73632383 1.3857563 -0.12478215 3
-0.72970408 1.3878239 -0.12399892 3
-0.72347122 1.3907443 -0.12342317 3
-0.71099591 1.3792535 -0.11958111 3
-0.71133542 1.3973705 -0.12248092 3
-0.70731312 1.4055965 -0.12312987 3
-0.6938889 1.3911748 -0.11870495 3
-0.69130707 1.4029526 -0.12016743 3
-0.68751371 1.4120078 -0.1210166 3
-0.680776 1.4137564 -0.12025022 3
-0.66806793 1.399913 -0.1160721 3
-0.66452169 1.4097881 -0.11712321 3
-0.65645325 1.4077123 -0.11556984 3
-0.64809036 1.4046552 -0.11382375 3
-0.64372408 1.4126123 -0.11447295 3
-0.63766003 1.4159286 -0.11412608 3
-0.63442898 1.4275556 -0.11556251 3
-0.63044763 1.4373246 -0.1165965 3
-0.6229912 1.4368414 -0.11545729 3
-0.61465156 1.4335068 -0.11373316 3
-0.61758423 1.465642 -0.11947069 3
-0.60653156 1.4538205 -0.11598326 3
-0.60472107 1.471943 -0.11875937 3
-0.58405864 1.4270698 -0.10847209 3
-0.58712375 1.4620745 -0.11475011 3
-0.59244847 1.5065993 -0.12293739 3
-0.57086015 1.4557203 -0.11155101 3
-0.56702077 1.4680854 -0.11314637 3
-0.56754124 1.4975257 -0.11819974 3
-0.56405604 1.5127586 -0.12034845 3
-0.5541997 1.503239 -0.11750474 3
-0.54702866 1.5041292 -0.11677725 3
-0.53622687 1.4896933 -0.11300098 3
-0.53512037 1.5162947 -0.1174259 3
-0.52573299 1.5074849 -0.11480498 3
-0.51939702 1.5120317 -0.1148485 3
-0.51688933 1.5347944 -0.11848348 3
-0.50659001 1.5210201 -0.11493561 3
-0.49915826 1.5206459 -0.11403836 3
-0.49379113 1.530831 -0.11521081 3
-0.48289049 1.5120282 -0.11075849 3
-0.48414749 1.5138229 -0.11663509 3
-0.4745785 1.5007107 -0.11327069 3
-0.46633792 1.4942962 -0.1112506 3
-0.45594007 1.4742596 -0.10658716 3
-0.45474237 1.5103821 -0.11290953 3
-0.44435593 1.48926 -0.10807503 3
-0.43993616 1.5069194 -0.11079103 3
-0.43107063 1.4944168 -0.10767338 3
-0.42301685 1.486714 -0.10550677 3
-0.41256195 1.4594666 -0.099609904 3
-0.40816036 1.4789389 -0.10269604 3
-0.40126413 1.4788802 -0.10204542 3
-0.39308572 1.4670583 -0.099168546 3
-0.38617128 1.465928 -0.09834408 3
-0.38128239 1.4852934 -0.10140923 3
-0.37042528 1.4420043 -0.09264598 3
-0.36512104 1.457378 -0.094974719 3
-0.35971314 1.4737079 -0.097478412 3
-0.35245717 1.467465 -0.095752619 3
-0.34587449 1.4700018 -0.095682703 3
-0.34016618 1.4872191 -0.09835466 3
-0.33419907 1.5034275 -0.10083421 3
-0.32688078 1.496035 -0.098937519 3
-0.32016248 1.5003841 -0.099228717 3
-0.31452286 1.5351592 -0.10513759 3
-0.30669791 1.5128946 -0.10053421 3
-0.30002737 1.5259737 -0.10244813 3
-0.2935915 1.5596673 -0.10813833 3
-0.28609121 1.5421802 -0.1044591 3
-0.27900547 1.5541563 -0.10617811 3
-0.27175844 1.5444463 -0.1039525 3
-0.26452661 1.5543689 -0.10531104 3
-0.25762936 1.5239075 -0.099353097 3
-0.25007942 1.5524355 -0.10410046 3
-0.24321772 1.5366455 -0.10083587 3
-0.23435111 1.5955772 -0.1110623 3
-0.22926433 1.5275657 -0.098419659 3
-0.2219409 1.5332886 -0.099075593 3
-0.21576121 1.5134014 -0.095146485 3
-0.2077678 1.5318172 -0.098097213 3
-0.20177573 1.5128365 -0.094363667 3
-0.19549492 1.5016831 -0.09204822 3
-0.18998034 1.4816562 -0.088168003 3
-0.1798192 1.5244285 -0.0954841 3
-0.1793405 1.4454489 -0.081152685 3
-0.17222783 1.450846 -0.081844233 3
-0.16410598 1.4659998 -0.084272496 3
-0.15949899 1.4448452 -0.08027669 3
-0.15260129 1.4471738 -0.080452092 3
-0.14746143 1.4338013 -0.077863432 3
-0.1381221 1.4565886 -0.081669398 3
-0.13159506 1.454872 -0.081158273 3
-0.12741633 1.4355384 -0.077556007 3
-0.12089269 1.4347324 -0.077229343 3
-0.11154722 1.4533873 -0.080332913 3
-0.10786042 1.4330012 -0.076585375 3
-0.092778698 1.4865826 -0.085832246 3
-0.092624068 1.4447246 -0.078341104 3
-0.082089067 1.4670228 -0.082111813 3
-0.072815135 1.4804994 -0.084343009 3
-0.0681393 1.4677268 -0.08198791 3
-0.060874596 1.4694656 -0.082183845 3
-0.04962863 1.491473 -0.085933633 3
-0.038303912 1.5124197 -0.089505278 3
-0.029717639 1.5187938 -0.090539075 3
-0.026601627 1.499078 -0.08702632 3
-0.023080409 1.4822538 -0.084031112 3
-0.012145683 1.4990815 -0.086922638 3
-0.012827635 1.4649243 -0.080924757 3
-0.010478199 1.4451994 -0.077457584 3
0.00079756975 1.462831 -0.080520995 3
0.00074952841 1.4344692 -0.0755677 3
0.0094819963 1.4414728 -0.07679718 3
0.01578784 1.4388767 -0.076361738 3
0.017689288 1.4200634 -0.073104985 3
0.025962621 1.4250216 -0.074008889 3
0.035921544 1.4356109 -0.075907506 3
0.041893512 1.4319124 -0.075321071 3
0.049796611 1.4347988 -0.075896122 3
0.051157624 1.415922 -0.072675593 3
0.061358005 1.426271 -0.074577175 3
0.067227483 1.4224303 -0.074006937 3
0.071241289 1.4129262 -0.072454251 3
0.079480231 1.4165256 -0.073207952 3
0.084312052 1.4097805 -0.072158121 3
0.091638178 1.4104787 -0.072424687 3
0.099963337 1.4139199 -0.073184662 3
0.10668454 1.412653 -0.073128484 3
0.11374059 1.4122702 -0.073238783 3
0.12286267 1.4173911 -0.074330635 3
0.13380215 1.4270552 -0.076237805 3
0.13318986 1.4062339 -0.072773285 3
0.13521719 1.3928087 -0.070620023 3
0.14293855 1.3940637 -0.071072944 3
0.14179423 1.3733147 -0.067634456 3
0.15057012 1.3772479 -0.06858211 3
0.15940806 1.381112 -0.06953112 3
0.16792032 1.3839984 -0.070319705 3
0.17530462 1.3841031 -0.070625283 3
0.18350193 1.3859618 -0.071256496 3
0.1981934 1.4021689 -0.074470691 3
0.20041943 1.3903913 -0.072686665 3
0.20749217 1.3893733 -0.072841443 3
0.21666807 1.3927737 -0.07380373 3
0.22165051 1.3871931 -0.073160507 3
0.22873554 1.3860307 -0.073324867 3
0.24148986 1.3963325 -0.075578772 3
0.24379763 1.3853264 -0.073984168 3
0.24733052 1.3769706 -0.072876297 3
0.25484714 1.3765079 -0.073214717 3
0.26420483 1.3794907 -0.074196227 3
0.25419781 1.3457668 -0.068464853 3
0.26344338 1.3487138 -0.069455482 3
0.27652588 1.3585173 -0.071725748 3
0.28544256 1.3604256 -0.072560601 3
0.29246876 1.3588189 -0.072760202 3
0.30828735 1.3726059 -0.075832017 3
0.30257258 1.3486199 -0.071895607 3
0.31853524 1.3622266 -0.074971832 3
0.32158068 1.3536031 -0.073911764 3
0.33014241 1.3542843 -0.07460583 3
0.32896522 1.3388838 -0.072283097 3
0.33281568 1.3319309 -0.0715551 3
0.33660367 1.3249668 -0.070831515 3
0.33715352 1.3129913 -0.069160081 3
0.3418552 1.3076862 -0.06876304 3
0.34220013 1.2957424 -0.067101337 3
0.35276404 1.299481 -0.068456866 3
0.35735306 1.2941003 -0.068071909 3
0.36799535 1.2976871 -0.069433667 3
0.3697578 1.2881577 -0.068264283 3
0.37875977 1.2891771 -0.069157802 3
0.38950321 1.2925426 -0.070529483 3
0.39514694 1.2885793 -0.070480041 3
0.40134481 1.2853816 -0.070592739 3
0.40986112 1.2853293 -0.071341984 3
0.41134307 1.2756901 -0.070196964 3
0.41866216 1.2739621 -0.070637546 3
0.42897281 1.2761091 -0.071872465 3
0.42306951 1.2570399 -0.068842538 3
0.43578139 1.2622167 -0.070717432 3
0.4430739 1.2602966 -0.071173318 3
0.45221779 1.2606351 -0.072107248 3
0.4545593 1.2524515 -0.071306504 3
0.45995644 1.2480918 -0.071299963 3
0.46532676 1.2436992 -0.07129734 3
0.46686134 1.234736 -0.070350356 3
0.46703544 1.2242812 -0.069091074 3
0.45680776 1.2018784 -0.065306298 3
0.46189824 1.1975038 -0.06531886 3
0.46565625 1.1916168 -0.065019004 3
0.468712 1.1849777 -0.064564727 3
0.47700807 1.1841948 -0.065379284 3
0.48465487 1.1826127 -0.066039719 3
0.48426279 1.1722701 -0.064805694 3
0.48917207 1.1677283 -0.06484089 3
0.50627887 1.1760575 -0.067728974 3
0.51189291 1.1720946 -0.06793081 3
0.51198518 1.1624259 -0.066869564 3
0.53067303 1.1718016 -0.070088856 3
0.53766501 1.1690784 -0.070620023 3
0.53834891 1.160037 -0.06972862 3
0.54529405 1.1572417 -0.070267715 3
0.55294311 1.1550789 -0.070969693 3
0.56273341 1.1549019 -0.072152115 3
0.56251347 1.1451319 -0.071116544 3
0.57157886 1.1441616 -0.072148912 3
0.58211207 1.1444503 -0.073503979 3
0.57809699 1.131326 -0.071683995 3
0.5805521 1.1242301 -0.071297772 3
0.59253359 1.1256721 -0.072984137 3
0.60011637 1.1230822 -0.073720641 3
0.60695374 1.1197804 -0.074302383 3
0.61303353 1.1157802 -0.074729182 3
0.62135363 1.1136507 -0.075638898 3
0.62438476 1.1070077 -0.075436004 3
0.62584734 1.0990961 -0.074917026 3
0.62724674 1.0911938 -0.074401118 3
0.63702762 1.0901272 -0.075647987 3
0.63371313 1.0784991 -0.074178763 3
0.64036798 1.0748831 -0.074793778 3
0.64467502 1.069393 -0.074932374 3
0.65207779 1.0662841 -0.075716726 3
0.65397394 1.0589319 -0.075381778 3
0.67002583 1.0622437 -0.077942856 3
0.6718744 1.0548114 -0.07761649 3
0.67366743 1.0473822 -0.077293165 3
0.68260467 1.0451577 -0.078423046 3
0.68029976 1.0348274 -0.077300645 3
0.69162226 1.0342087 -0.078924008 3
0.69486773 1.0278447 -0.078938104 3
0.70132506 1.0236992 -0.079602726 3
0.70531619 1.0178397 -0.079786457 3
0.70681047 1.0103104 -0.079487957 3
0.71154308 1.0049611 -0.07984107 3
0.7104584 0.99580824 -0.079061724 3
0.71178889 0.98829257 -0.078771822 3
0.71972954 0.98501217 -0.079786502 3
0.72264731 0.97851753 -0.079829223 3
0.72468257 0.97149205 -0.079712428 3
0.72582662 0.96395087 -0.079435296 3
0.73452556 0.96099222 -0.080631889 3
0.73134327 0.95090663 -0.079543568 3
0.73659205 0.9458611 -0.080094226 3
0.73925197 0.93929517 -0.080157302 3
0.73243654 0.92735434 -0.07841716 3
0.72121263 0.91310477 -0.075853743 3
0.7072643 0.89758003 -0.072793074 3
0.71221936 0.89262855 -0.073354267 3
0.70846105 0.88296902 -0.072269298 3
0.69503438 0.8682977 -0.069366388 3
0.69808018 0.86247647 -0.069602974 3
0.70021319 0.85618579 -0.069677331 3
0.69350779 0.84543145 -0.068095274 3
0.6955322 0.83917928 -0.068173252 3
0.68955064 0.82900566 -0.066756614 3
0.69501984 0.82450652 -0.067504786 3
0.69156873 0.81571615 -0.066589035 3
0.69161654 0.80865979 -0.066341676 3
0.69698417 0.80409986 -0.067100234 3
0.70053577 0.7986753 -0.067528315 3
0.71125555 0.79644442 -0.069302864 3
0.71566653 0.79131985 -0.069908537 3
0.71281362 0.78302443 -0.069171764 3
0.70808268 0.77400696 -0.068097927 3
0.7096436 0.76772702 -0.068205185 3
0.69566965 0.75506485 -0.065439992 3
0.69345701 0.74739254 -0.064870529 3
0.69301856 0.7404896 -0.064640768 3
0.69069588 0.732889 -0.064072587 3
0.68647635 0.72462416 -0.063164376 3
0.69878936 0.7226783 -0.06532409 3
0.69632649 0.71512657 -0.064760678 3
0.70214248 0.71064436 -0.065736927 3
0.70515406 0.7051127 -0.066204526 3
0.71092367 0.70053238 -0.067190565 3
0.70362592 0.6914227 -0.065775074 3
0.7093271 0.68680692 -0.066767715 3
0.69816649 0.67658758 -0.064660437 3
0.69723046 0.66984248 -0.064448632 3
0.69436979 0.66252649 -0.063891716 3
0.6933378 0.65583873 -0.063681491 3
0.69226003 0.64917445 -0.063472278 3
0.69491327 0.6436528 -0.063960247 3
0.6946969 0.6372875 -0.063928522 3
0.69443822 0.63093507 -0.063898422 3
0.69508684 0.62485838 -0.064044796 3
0.70615137 0.62160856 -0.066121899 3
0.67056632 0.60593295 -0.059601404 3
0.69203353 0.60541487 -0.06361682 3
0.71066082 0.60392725 -0.067119889 3
0.7159158 0.59895074 -0.068164654 3
0.70869839 0.59095603 -0.066914119 3
0.70621502 0.5841682 -0.06654682 3
0.70176518 0.57698596 -0.065824129 3
0.69822574 0.57007629 -0.065278031 3
0.69078875 0.56239843 -0.064017691 3
0.68329501 0.55481809 -0.06275367 3
0.67671025 0.54752886 -0.061664946 3
0.67490196 0.54126257 -0.061470173 3
0.68175387 0.53665745 -0.062893696 3
0.67890429 0.53022057 -0.062522762 3
0.67407417 0.52348518 -0.061790384 3
0.67016745 0.51697814 -0.061237015 3
0.67204082 0.51147211 -0.061769761 3
0.6767956 0.50640535 -0.062850468 3
0.66499197 0.49880087 -0.060843088 3
0.66675699 0.49330911 -0.061381198 3
0.66264498 0.4869943 -0.060826071 3
0.66336489 0.48137686 -0.06118501 3
0.65917337 0.475142 -0.060628839 3
0.65494084 0.46896216 -0.060071148 3
0.66043377 0.46394625 -0.061354451 3
0.66198969 0.45844802 -0.061905302 3
0.65862358 0.45243946 -0.06153404 3
0.65032768 0.44600949 -0.060234658 3
0.65960574 0.44125301 -0.062275343 3
0.64829588 0.43468025 -0.06041453 3
0.64771664 0.42907622 -0.060599275 3
0.64612293 0.42341238 -0.060598291 3
0.64351392 0.41770685 -0.060410373 3
0.63792753 0.41186222 -0.059658624 3
0.62838149 0.40588057 -0.058150955 3
0.62370241 0.40024483 -0.057580478 3
0.62291312 0.39482656 -0.057764269 3
0.61816514 0.38928366 -0.057191156 3
0.6212343 0.38402301 -0.058135279 3
0.61347485 0.37848413 -0.056990065 3
0.61844146 0.37324888 -0.058320053 3
0.62337565 0.36795425 -0.059656255 3
0.61748028 0.36255398 -0.058890767 3
0.62038541 0.3572098 -0.059850536 3
0.61835063 0.35186875 -0.05985231 3
0.61628354 0.34655207 -0.059854291 3
0.61810827 0.34118211 -0.060629793 3
0.60322702 0.33622175 -0.058114327 3
0.60106683 0.33103296 -0.058112644 3
0.60377622 0.32568288 -0.059084304 3
0.58685493 0.32116294 -0.056157954 3
0.59244144 0.31571648 -0.057716273 3
0.58917987 0.31069627 -0.057517551 3
0.58686781 0.30565292 -0.057514288 3
0.58354783 0.30070251 -0.057314046 3
0.58019924 0.29579014 -0.057112686 3
0.59440994 0.28949994 -0.060471185 3
0.59685349 0.28405058 -0.061465658 3
0.58657527 0.27974513 -0.059880741 3
0.5870055 0.27450106 -0.060479544 3
0.58350468 0.26965779 -0.060282193 3
0.57802904 0.26506984 -0.059683375 3
0.58353448 0.25404441 -0.061894603 3
0.58671713 0.24841356 -0.063108243 3
0.58597934 0.24326691 -0.063519113 3
0.589252 0.23227145 -0.065360166 3
0.58841455 0.22711046 -0.065777905 3
0.58271217 0.22273 -0.065177493 3
-0.74914223 0.48995474 -0.060283907 3
-1.6289072 1.6197129 0.20134756 4
-1.6218204 1.6286937 0.20246306 4
-1.5937133 1.6176527 0.20206302 4
-1.573697 1.6139449 0.20221183 4
-1.5673482 1.6232989 0.20335546 4
-1.5566732 1.6284093 0.20417678 4
-1.5396332 1.6270789 0.20450184 4
-1.5331776 1.6362497 0.20563811 4
-1.5113245 1.6296593 0.20555082 4
-1.4979104 1.6314816 0.20611504 4
-1.4494282 1.5962946 0.20377189 4
-1.4417603 1.6034932 0.20474634 4
-1.4123155 1.5872301 0.20386583 4
-1.4020051 1.5912586 0.20458627 4
-1.3936982 1.5974272 0.20547846 4
-1.3926789 1.6117251 0.20702446 4
-1.386899 1.6208196 0.20815921 4
-1.3974572 1.6486908 0.21081507 4
-1.4077141 1.6767365 0.21350113 4
-1.3898453 1.6722766 0.21355689 4
-1.3939141 1.6936198 0.21571717 4
-1.4455845 1.7726426 0.22262153 4
-1.4007545 1.735826 0.22003394 4
-1.3909707 1.7411685 0.22090715 4
-1.3811636 1.7464432 0.22177663 4
-1.3769007 1.7586968 0.22322932 4
-1.3614812 1.7567887 0.22350448 4
-1.3814423 1.8005928 0.22761247 4
-1.3127185 1.7287422 0.22200745 4
-1.27368 1.6944081 0.21952787 4
-1.2523359 1.682894 0.21896181 4
-1.2341176 1.6751964 0.21871263 4
-1.2288859 1.6851157 0.21996269 4
-1.2171956 1.686087 0.22045076 4
-1.2158667 1.7016468 0.22219369 4
-1.2075504 1.7074101 0.22309947 4
-1.2172539 1.7394435 0.22628361 4
-1.2282751 1.7741218 0.22971618 4
-1.2339176 1.8015193 0.23253375 4
-1.2189474 1.798228 0.23268092 4
-1.2497343 1.8650321 0.23898172 4
-1.2587256 1.8995287 0.24247465 4
-1.1307547 1.8578237 0.2423864 4
-1.1150879 1.8517812 0.24228439 4
-1.1165395 1.8760664 0.24494117 4
-1.0831141 1.8375492 0.24187264 4
-1.0758616 1.8459967 0.24308708 4
-1.1122363 1.9361587 0.25182232 4
-1.096813 1.9542917 0.25443828 4
-1.0497448 1.8865461 0.24862117 4
-1.0398411 1.8903917 0.24943334 4
-1.038329 1.9111373 0.25182718 4
-1.065878 1.9919167 0.25986135 4
-0.99534702 1.8710121 0.2489762 4
-0.9783175 1.8592031 0.24831176 4
-0.97575867 1.8779554 0.25053263 4
-0.96718585 1.8840505 0.25156313 4
-0.95078599 1.8728403 0.25094965 4
-0.9349544 1.8623995 0.2504032 4
-0.92405474 1.8627813 0.25088781 4
-0.90807247 1.8511854 0.25022179 4
-0.89187062 1.8385341 0.24944744 4
-0.87889826 1.8331037 0.24936426 4
-0.86188507 1.8174247 0.2482841 4
-0.84989643 1.8136166 0.24835005 4
-0.83542752 1.803229 0.24777204 4
-0.82863581 1.8122315 0.24908656 4
-0.81999075 1.8165492 0.24994677 4
-0.82033503 1.8450825 0.2531952 4
-0.81249964 1.852158 0.25434136 4
-0.80359101 1.8563799 0.25520965 4
-0.80915725 1.901886 0.2601842 4
-0.81580174 1.9522184 0.26566789 4
-0.79767036 1.9309908 0.26402727 4
-0.81417215 2.013581 0.27278656 4
-0.82936895 2.0954764 0.28152645 4
-0.78825057 2.1152558 0.28565612 4
-0.56920576 2.178077 0.29460874 4
-0.55812901 2.1808057 0.29549551 4
-0.39818287 2.1741946 0.30340916 4
-0.38850152 2.1987007 0.30673233 4
-0.37518543 2.1655979 0.30372733 4
-0.35300571 2.1696229 0.30544308 4
-0.26369378 2.1203985 0.30504036 4
-0.25294283 2.1073592 0.30419689 4
-0.24217656 2.1051838 0.30459052 4
-0.23145789 2.1019495 0.30486387 4
-0.21044415 2.0863514 0.30435723 4
-0.19989648 2.0829258 0.30460703 4
-0.18948099 2.0774519 0.30461907 4
-0.17939305 2.0669575 0.30404416 4
-0.16960698 2.0534306 0.30310947 4
-0.1590108 2.0547161 0.30390781 4
-0.14903295 2.0470204 0.30365193 4
-0.13891414 2.0422375 0.30373782 4
-0.12810048 2.0463016 0.3048729 4
-0.11705253 2.0522738 0.30624166 4
-0.10563901 2.0611396 0.30796409 4
-0.095428824 2.0570869 0.3081494 4
-0.08440128 2.0608709 0.30927706 4
-0.072751671 2.069515 0.31099752 4
-0.062304914 2.0672381 0.31140721 4
-0.053135782 2.0550494 0.31061584 4
-0.043053895 2.0506866 0.31077152 4
-0.03136161 2.0580621 0.3123621 4
-0.019713104 2.0643752 0.31383234 4
-0.0064770877 2.0804219 0.31650925 4
0.0038452446 2.0767627 0.31677121 4
0.014619529 2.0759804 0.31739062 4
0.026572257 2.0819783 0.31885624 4
0.03634578 2.0751913 0.31873715 4
0.04568705 2.0663981 0.31836575 4
0.057353169 2.0702293 0.3195762 4
0.073692858 2.0973496 0.32372805 4
0.12226948 2.166225 0.33476385 4
-0.42292041 -0.26021925 -0.10682025 4
-0.42651632 -0.25824931 -0.10663485 4
-0.4308559 -0.25898799 -0.10743427 4
-0.43624991 -0.26332787 -0.10954972 4
-0.43958336 -0.26037446 -0.10902927 4
-0.4436999 -0.26011756 -0.10949511 4
-0.44865054 -0.26254126 -0.11094893 4
-0.45138091 -0.25772086 -0.10976123 4
-0.4557862 -0.2582849 -0.11055169 4
-0.46020645 -0.258818 -0.11134077 4
-0.4634448 -0.25573948 -0.11080567 4
-0.46695751 -0.25353858 -0.11059853 4
-0.47200301 -0.25577387 -0.11204409 4
-0.47582108 -0.25441328 -0.112164 4
-0.47834468 -0.24948111 -0.11095612 4
-0.48081511 -0.24454275 -0.10974474 4
-0.48622665 -0.24754295 -0.11151531 4
-0.48965573 -0.24521491 -0.11129402 4
-0.48962748 -0.2340841 -0.10774972 4
-0.49156448 -0.22823676 -0.10619306 4
-0.49769437 -0.23287627 -0.10862093 4
-0.49740797 -0.22177228 -0.10506364 4
-0.50138021 -0.22112849 -0.10549275 4
-0.5020138 -0.21265581 -0.10292485 4
-0.50556356 -0.21111545 -0.10301604 4
-0.50337356 -0.19662276 -0.098109059 4
-0.51727748 -0.1996102 -0.10135861 4
-0.51872867 -0.19371709 -0.099770375 4
-0.52216089 -0.19207588 -0.099847369 4
-0.52806848 -0.19549409 -0.10192511 4
-0.53612745 -0.20307973 -0.10567176 4
-0.53876948 -0.19964686 -0.1050761 4
-0.54353034 -0.20039693 -0.10614862 4
-0.54918271 -0.20278093 -0.10788805 4
-0.55135131 -0.19845107 -0.10695148 4
-0.55213952 -0.1916261 -0.10500879 4
-0.55420721 -0.18729642 -0.10406636 4
-0.55531967 -0.18131408 -0.10245197 4
-0.55590755 -0.17451873 -0.10049983 4
-0.55735528 -0.16937551 -0.099214099 4
-0.93949342 0.21052298 -0.11603803 4
-0.94138491 0.21896 -0.11552415 4
-0.94509161 0.22266714 -0.11620785 4
-0.94036913 0.22792155 -0.11406017 4
-0.94496298 0.23149522 -0.11505278 4
-0.90644956 0.24228629 -0.10162316 4
-0.96253955 0.23744819 -0.11984109 4
-0.97366214 0.24022076 -0.12300471 4
-0.97256196 0.2449239 -0.12209819 4
-0.96390402 0.25066721 -0.11869571 4
-0.97968602 0.25300831 -0.1233995 4
-0.98133004 0.25735113 -0.12342153 4
-0.97728729 0.26239842 -0.12157609 4
-0.97981918 0.26662868 -0.12190551 4
-0.98516214 0.27057722 -0.12316167 4
-0.97818887 0.27585077 -0.12038667 4
-0.97590947 0.28057742 -0.11916228 4
-1.0746702 0.38250792 -0.14162689 4
-1.0591284 0.43156511 -0.13363364 4
-1.0644395 0.43714088 -0.13501576 4
-1.0450337 0.43992153 -0.1287311 4
-1.0407984 0.44431975 -0.12716967 4
-1.0517075 0.45061892 -0.13030913 4
-1.032253 0.45296586 -0.12405355 4
-1.0345712 0.45814955 -0.12454798 4
-1.0330714 0.46280664 -0.12386911 4
-1.0324891 0.46759391 -0.12348153 4
-1.031877 0.47237745 -0.12309248 4
-1.0321796 0.47731429 -0.12299288 4
-1.0399944 0.48356375 -0.12521359 4
-1.0355173 0.48771751 -0.12365609 4
-1.0376056 0.4930439 -0.1241267 4
-1.0537612 0.50111091 -0.12892637 4
-1.062421 0.51305193 -0.13127109 4
-1.0493854 0.52563232 -0.12686041 4
-1.0568228 0.53246051 -0.1290167 4
-1.0474243 0.53540063 -0.12602475 4
-1.043605 0.53959364 -0.12475019 4
-1.0416232 0.54421151 -0.12404621 4
-1.0349714 0.54761708 -0.12192231 4
-1.0199603 0.5487451 -0.11725221 4
-1.0216274 0.55419987 -0.1176889 4
-1.0186347 0.55840153 -0.11670925 4
-1.0146956 0.56231117 -0.11544859 4
-1.0171872 0.56805235 -0.11615967 4
-1.0131983 0.57191843 -0.11489929 4
-1.0128634 0.57685876 -0.11476242 4
-1.004245 0.57923973 -0.1121045 4
-1.0139283 0.58733058 -0.11504111 4
-1.0061861 0.58992314 -0.11266608 4
-1.0057337 0.59484231 -0.11252397 4
-1.0079795 0.60068679 -0.11321325 4
-1.0001915 0.60312313 -0.11084703 4
-1.0041847 0.60961568 -0.11208529 4
-0.99184394 0.61032736 -0.10834364 4
-0.98945034 0.61452532 -0.10764667 4
-0.99694228 0.6223948 -0.10997724 4
-0.99537849 0.6269542 -0.10954946 4
-0.99647748 0.63254452 -0.10994325 4
-1.0011162 0.63956785 -0.1114276 4
-0.99855483 0.64379513 -0.11071878 4
-1.0048777 0.651636 -0.11273593 4
-1.0182438 0.6625185 -0.11691917 4
-1.017324 0.66758454 -0.11673919 4
-3.406086 -17.099716 0.27891383 5
-11.589154 -13.497472 0.082914256 5
-5.2146859 -5.4832821 0.09557005 5
-5.2952595 -5.5052261 0.09565597 5
-5.2948732 -5.4328699 0.095910095 5
-5.2362761 -5.295464 0.096282296 5
-5.0849876 -5.0567617 0.096816801 5
-4.9477291 -4.8386831 0.097332291 5
-4.9078593 -4.7317185 0.097708426 5
-7.1386824 -0.024450988 0.31434441 5
-32.604801 -0.028304964 1.189422 5
-32.485138 0.36627254 1.2141958 5
-31.757631 1.711681 1.2911237 5
-31.550272 2.2768826 1.3284537 5
-31.353905 2.6458483 1.3512727 5
-31.240795 3.0178494 1.3776127 5
-31.105314 3.3856635 1.4032801 5
-30.999168 3.5646367 1.4145623 5
-30.295124 4.9813528 1.5122888 5
-12.056831 4.0695515 0.83791721 5
-12.047817 4.1459069 0.84544098 5
-7.0411572 2.578954 0.53533679 5
-5.9113784 5.0715752 0.80687451 5
4.621871 9.923295 2.0629745 5
4.2913404 8.8810358 1.870016 5
7.1362457 12.858338 2.7690177 5
4.9801631 8.9727726 1.9559287 5
5.328836 8.4844437 1.9212865 5
5.1686897 8.1478405 1.8539635 5
6.6812634 10.055495 2.3029079 5
5.3996382 8.1643238 1.8822731 5
6.7785263 9.9373474 2.2966356 5
6.8279366 9.8799095 2.2938881 5
6.8917251 9.841857 2.295634 5
6.9451666 9.7901039 2.2942541 5
7.0361857 9.787035 2.3042634 5
7.1335244 9.7909384 2.3160465 5
7.1828547 9.7331848 2.313453 5
7.2736926 9.7272778 2.3231573 5
7.3156557 9.6603966 2.3184826 5
7.2644153 9.4811373 2.2869055 5
7.1267128 9.2017965 2.2309687 5
7.3036056 9.2997589 2.2657325 5
7.4039006 9.3047934 2.2783124 5
7.4961681 9.2992773 2.288491 5
7.6088037 9.3158579 2.3042505 5
7.4361477 9.0104485 2.2406867 5
7.8961802 9.4130526 2.3523197 5
7.7759991 9.1689997 2.3037357 5
7.6578708 8.6174421 2.2128203 5
7.5707083 8.4256201 2.1757023 5
7.7270236 8.4847765 2.2030423 5
7.2485843 7.9040933 2.0644681 5
7.1997643 7.7624497 2.0390718 5
7.1895337 7.6609302 2.0239687 5
7.2377229 7.6172624 2.0240335 5
7.2956176 7.5827904 2.0265927 5
7.5857396 7.5846629 2.0632944 5
7.6328268 7.5378098 2.0629759 5
7.7330794 7.5386105 2.0757921 5
8.2476368 7.8113284 2.1775258 5
8.2039137 7.6805735 2.1546547 5
8.3175173 7.6860294 2.169944 5
8.396925 7.6612043 2.1768978 5
10.721245 8.2991524 2.5633011 5
9.941123 6.9894619 2.2962096 5
9.9683599 6.9171276 2.2910903 5
10.004247 6.8505011 2.2878816 5
11.136953 6.8908501 2.4480352 5
11.194866 6.8298593 2.448873 5
16.004147 8.3819084 3.2990096 5
16.020638 8.2648087 3.2881505 5
16.066309 8.0380831 3.2692492 5
16.159088 7.8343287 3.2598202 5
13.322371 2.9098859 2.3503356 5
13.341631 2.8264964 2.3457568 5
13.357467 2.7424645 2.3406599 5
13.372787 2.6583395 2.3355258 5
13.385641 2.5738077 2.3300369 5
33.733379 -5.5524025 4.8229375 5
13.627733 -2.3212833 2.0173743 5
13.602234 -2.4049103 2.0089731 5
13.581086 -2.4893134 2.0012238 5
13.572998 -2.5764349 1.9953109 5
11.506553 -2.2137368 1.7088224 5
10.84336 -2.1404026 1.6146106 5
10.746466 -2.1897991 1.5976979 5
10.679276 -2.2452049 1.5848989 5
10.682128 -2.3170655 1.5816275 5
10.697975 -2.3924322 1.5801324 5
10.69795 -2.4641323 1.5765226 5
10.704169 -2.5377028 1.5737783 5
10.517482 -2.5593617 1.545271 5
10.522079 -2.6318345 1.5424198 5
9.8411217 -2.5771327 1.4451975 5
9.7589359 -2.6201172 1.431145 5
9.7117186 -2.6728704 1.4217873 5
9.714448 -2.7407498 1.4190656 5
9.7573891 -2.8216805 1.4216534 5
9.8034935 -2.9044755 1.4246548 5
10.0779 -3.0637236 1.4575299 5
9.8853378 -3.0692487 1.4292947 5
9.8816872 -3.1375308 1.4258082 5
9.8747749 -3.2049031 1.4219245 5
9.8515348 -3.2666235 1.4159517 5
9.8801346 -3.3472662 1.4167246 5
10.018842 -3.4696159 1.4317216 5
10.006994 -3.537111 1.4272684 5
9.9780321 -3.5981579 1.420647 5
9.9792032 -3.6709876 1.4179311 5
10.02043 -3.7602224 1.4203649 5
10.098654 -3.8654809 1.4275261 5
10.233776 -3.9958277 1.4419192 5
10.533328 -4.1978951 1.4771744 5
28.732908 -17.519718 3.6179636 5
28.644882 -17.71056 3.6012797 5
15.873632 -11.306649 2.022054 5
15.814131 -11.414008 2.0121312 5
15.757917 -11.524028 2.0026627 5
6.9621692 -5.2083349 0.95670903 5
6.9276175 -5.2521014 0.95145535 5
15.422152 -12.192291 1.9473487 5
15.349063 -12.291119 1.9363393 5
15.27381 -12.388245 1.9251446 5
15.195656 -12.483009 1.9136778 5
5.5196538 -4.5654507 0.77939832 5
5.4460106 -4.5632315 0.76999879 5
5.2452722 -6.507421 0.73257524 5
5.1973047 -6.5333796 0.72700453 5
5.1086617 -6.5071487 0.71682507 5
5.0296865 -6.4919271 0.70777899 5
4.9444394 -6.4672661 0.69804776 5
4.8542871 -6.4346433 0.68778622 5
4.8099694 -6.4620137 0.68278134 5
4.74189 -6.4569221 0.67509466 5
4.5896444 -6.4214649 0.65796936 5
4.5195913 -6.4104586 0.65013945 5
4.4955111 -6.4643288 0.64758593 5
4.4573731 -6.4984245 0.6434564 5
4.4189954 -6.5323067 0.63932842 5
4.3892708 -6.5792365 0.63621914 5
4.3872318 -6.6685066 0.63630855 5
4.352632 -6.7095375 0.6327039 5
4.3209472 -6.7554388 0.62946379 5
4.2894092 -6.8020568 0.62627149 5
4.261714 -6.8553157 0.62355214 5
4.2319632 -6.9059548 0.62062907 5
4.1944838 -6.9445682 0.61684966 5
4.1649351 -6.9966755 0.61401451 5
4.1308398 -7.0418243 0.61068875 5
-1.284925 0.85736167 -0.142728 5
-1.2784495 0.86192894 -0.14121568 5
-1.2905546 0.88395238 -0.1444909 5
-1.2865385 0.88985825 -0.14362219 5
-1.2971166 0.90358007 -0.14642197 5
-1.2758321 0.90017831 -0.14124 5
-1.2777084 0.90928209 -0.14187658 5
-1.282069 0.91986167 -0.14314815 5
-1.2685041 0.92037785 -0.13992408 5
-1.2727449 0.93099511 -0.14118603 5
-1.2633984 0.93379366 -0.13903788 5
-1.2581162 0.94716656 -0.13814455 5
-1.2520707 0.95180047 -0.13685212 5
-1.2825959 0.9789989 -0.14481321 5
-1.2896333 0.99206018 -0.14685687 5
-1.2849948 0.99789166 -0.14595765 5
-1.2951255 1.0132185 -0.14881346 5
-1.2870882 1.0169355 -0.14707342 5
-1.2814914 1.0221961 -0.14596084 5
-1.2758687 1.0274118 -0.14485005 5
-1.2686009 1.0314835 -0.1433284 5
-1.2613209 1.0354902 -0.1418108 5
-1.2628613 1.0455878 -0.14255485 5
-1.2547218 1.0489544 -0.14083466 5
-1.2489665 1.0539544 -0.13973212 5
-1.2463584 1.0612072 -0.13944575 5
-1.2523819 1.074827 -0.14138973 5
-1.2362728 1.0721872 -0.13765091 5
-1.2429203 1.0864606 -0.13978294 5
-1.2509899 1.1020309 -0.14230168 5
-1.235649 1.0997634 -0.13877985 5
-1.2273163 1.1027666 -0.13707533 5
-1.2258958 1.1111697 -0.137173 5
-1.2465789 1.1373646 -0.14303902 5
-1.233508 1.1366569 -0.14013365 5
-1.2477365 1.1582297 -0.14436674 5
-1.2481809 1.1687167 -0.14501885 5
-1.2380406 1.170392 -0.14290756 5
-1.2353741 1.1783378 -0.14276686 5
-1.2356154 1.188846 -0.14340574 5
-1.2150977 1.1813056 -0.13857278 5
-1.2101254 1.1872 -0.13784984 5
-1.2138814 1.2009223 -0.13945532 5
-1.2044308 1.2028525 -0.13756523 5
-1.1906567 1.200714 -0.13452464 5
-1.1862829 1.2071255 -0.13399822 5
-1.1875817 1.2188975 -0.13500521 5
-1.1774054 1.2198808 -0.13294289 5
-1.1700763 1.223497 -0.13165143 5
-1.1641413 1.2284269 -0.13074386 5
-1.1616709 1.2367679 -0.13078552 5
-1.1626034 1.2485844 -0.13176817 5
-1.1675655 1.2646393 -0.13387185 5
-1.1751096 1.283602 -0.13671082 5
-1.1790519 1.2991551 -0.13859254 5
-1.1855488 1.3176382 -0.14120626 5
-1.1817634 1.3254983 -0.14100748 5
-1.1852716 1.3412689 -0.14284813 5
-1.1813164 1.3491523 -0.14263779 5
-1.1825793 1.3628504 -0.1439012 5
-1.1882994 1.3817286 -0.1464411 5
-1.183408 1.3889313 -0.14602679 5
-1.1926907 1.4124037 -0.14963463 5
-1.1991554 1.4330513 -0.15248746 5
-1.2194359 1.4702854 -0.15931839 5
-1.2114398 1.4747038 -0.1581296 5
-1.229831 1.5108321 -0.16453275 5
-1.2297214 1.5251828 -0.16566902 5
-1.216463 1.5235294 -0.16302294 5
-1.2229389 1.5463297 -0.16611814 5
-1.2450442 1.5893199 -0.17383125 5
-1.1794455 1.5209514 -0.15586877 5
-1.1706021 1.5242907 -0.15451053 5
-1.1802385 1.5518371 -0.15863931 5
-1.1523041 1.5299846 -0.15163127 5
-1.1311219 1.5165253 -0.14659593 5
-1.1328372 1.533814 -0.14842176 5
-1.1251384 1.5384055 -0.14743763 5
-1.0830648 1.4948753 -0.13600728 5
-1.0619843 1.4798387 -0.13089389 5
-1.0568748 1.4872148 -0.13065463 5
-1.0438938 1.4832057 -0.12799805 5
-1.0851918 1.5589658 -0.14220998 5
-1.0696921 1.5517823 -0.13884142 5
-1.082557 1.5871964 -0.1443783 5
-1.0966388 1.625291 -0.15038854 5
-1.0894929 1.6312869 -0.14973333 5
-1.1103044 1.6813385 -0.15805289 5
-1.1127511 1.7032968 -0.16057786 5
-1.1683418 1.8117033 -0.1804148 5
-1.1975096 1.8796045 -0.19190457 5
-1.1466295 1.8161154 -0.17723358 5
-1.1674715 1.8716298 -0.1861535 5
-1.1821994 1.9180952 -0.19318581 5
-1.1417056 1.8699763 -0.18178454 5
-1.1608237 1.9251505 -0.1904301 5
-1.1566348 1.9401826 -0.19128156 5
-1.1198473 1.8965153 -0.18096697 5
-1.0458598 1.7831483 -0.15762946 5
-1.0787621 1.8653656 -0.17128268 5
-1.0737787 1.8782756 -0.17184439 5
-1.0923946 1.9366802 -0.18082377 5
-1.1166487 2.0076621 -0.19200394 5
-1.0585182 1.9178545 -0.17364976 5
-1.0966197 2.0181959 -0.19007096 5
-1.1009121 2.0526114 -0.19438744 5
-1.0584159 1.991153 -0.18145153 5
-1.0663352 2.0335324 -0.18719199 5
-1.073772 2.0760727 -0.19289285 5
-1.0579811 2.0694501 -0.18986717 5
-1.0308737 2.0375175 -0.18244907 5
-1.0412257 2.0882788 -0.18951401 5
-1.0271602 2.0849743 -0.18714416 5
-1.0053283 2.063426 -0.18166727 5
-0.99228287 2.0616746 -0.17964229 5
-0.97547805 2.0507095 -0.1760776 5
-0.96971524 2.0661058 -0.17701238 5
-0.94456625 2.0338476 -0.16993141 5
-0.91801238 1.9967492 -0.16212511 5
-0.90699506 1.9980601 -0.1607922 5
-0.89033675 1.9845273 -0.15702483 5
-0.88846076 2.0097113 -0.15966481 5
-0.88972247 2.0442083 -0.16380137 5
-0.88016486 2.0499678 -0.16322592 5
-0.89304674 2.1190248 -0.17289314 5
-0.87716258 2.1080081 -0.16958582 5
-0.88187635 2.1567473 -0.17587525 5
-0.87598372 2.1756055 -0.17734888 5
-0.85910332 2.1615708 -0.17360607 5
-0.84664881 2.1605778 -0.17196009 5
-0.8511399 2.2132761 -0.17874613 5
-0.83755565 2.2093801 -0.17664853 5
-0.82632256 2.2129636 -0.17573696 5
-0.8175832 2.2250178 -0.17614686 5
-0.80954027 2.2398863 -0.17699015 5
-0.80348229 2.2623448 -0.17899027 5
-0.79586148 2.28003 -0.18025118 5
-0.7813772 2.2728462 -0.17774364 5
-0.77251577 2.2866154 -0.17842078 5
-0.76424181 2.3032238 -0.17952338 5
-0.75363338 2.3111603 -0.17932856 5
-0.74248087 2.3171153 -0.17884806 5
-0.72968185 2.3162632 -0.17737278 5
-0.72289658 2.3413742 -0.17973685 5
-0.71129185 2.3461883 -0.17911428 5
-0.70111591 2.3577054 -0.17948171 5
-0.68979651 2.3643286 -0.17914286 5
-0.67603368 2.3592465 -0.17712316 5
-0.65542084 2.3191023 -0.17008424 5
-0.63885367 2.2972553 -0.16573447 5
-0.64732575 2.3498764 -0.18185672 5
-0.64342225 2.3970599 -0.18752402 5
-0.63397932 2.4160016 -0.18904179 5
-0.60773075 2.3373098 -0.17640287 5
-0.59428835 2.3306649 -0.1742759 5
-0.59804177 2.4324858 -0.18777084 5
-0.58101779 2.4052076 -0.18267712 5
-0.57244349 2.4336507 -0.18558151 5
-0.56558096 2.4767785 -0.19055921 5
-0.55221128 2.4747446 -0.18911433 5
-0.53837979 2.4686952 -0.18712321 5
-0.52415824 2.4586213 -0.18459097 5
-0.51141906 2.460259 -0.18372646 5
-0.50016165 2.475606 -0.18478999 5
-0.4870173 2.4741397 -0.18351892 5
-0.47427812 2.476536 -0.18280163 5
-0.45877007 2.4482665 -0.17786703 5
-0.4465887 2.4554267 -0.17784938 5
-0.43202686 2.4328804 -0.17377019 5
-0.41010803 2.303494 -0.15513319 5
-0.39151022 2.2006052 -0.14023754 5
-0.39366567 2.4259708 -0.16999713 5
-0.38370693 2.4752965 -0.17576072 5
-0.37254784 2.5117109 -0.17975712 5
-0.35915869 2.5044973 -0.17787459 5
-0.34693873 2.5279059 -0.18011877 5
-0.33380598 2.529448 -0.17943901 5
-0.3210904 2.5497396 -0.18127233 5
-0.30772942 2.5461688 -0.17993695 5
-0.29461831 2.5613501 -0.18110475 5
-0.28122047 2.5546422 -0.17938688 5
-0.26789653 2.5547917 -0.17859384 5
-0.25474563 2.5310643 -0.17468122 5
-0.24168363 2.5221283 -0.17273921 5
-0.2287488 2.5121198 -0.17067972 5
-0.21621257 2.4911292 -0.16721195 5
-0.20292881 2.5017812 -0.16788709 5
-0.18925336 2.5192871 -0.16945988 5
-0.17908591 2.4514968 -0.16000479 5
-0.17101821 2.357903 -0.14727768 5
-0.15949315 2.346478 -0.14520037 5
-0.13878912 2.4854631 -0.1624645 5
-0.12810326 2.4520793 -0.15757257 5
-0.11598593 2.4433734 -0.1558708 5
-0.103652 2.4385514 -0.15468463 5
-0.090518713 2.4435396 -0.15476561 5
-0.08215487 2.3960862 -0.14819422 5
-0.087873101 2.2113638 -0.12424911 5
-0.062076211 2.3494549 -0.14127848 5
-0.041150928 2.4281356 -0.15074888 5
-0.02732569 2.4376512 -0.1514731 5
-0.013255924 2.4480593 -0.1523208 5
0.00018584728 2.4524682 -0.15242499 5
0.0099648535 2.4292557 -0.14907566 5
0.011687845 2.3509741 -0.13884985 5
0.012617856 2.2737255 -0.12879819 5
0.01775229 2.2298868 -0.1229636 5
0.017503738 2.155673 -0.11336859 5
0.027435124 2.1481063 -0.11211624 5
0.034754425 2.1258125 -0.1090469 5
0.052815944 2.1650529 -0.11364501 5
0.069016725 2.1914508 -0.11665041 5
0.05888465 2.078295 -0.10235762 5
0.062591016 2.0422616 -0.097660892 5
0.082129925 2.0860085 -0.10285781 5
0.090369791 2.0732319 -0.10106932 5
0.10413846 2.0866172 -0.10252766 5
0.12283212 2.1212173 -0.10661422 5
0.11556625 2.0404902 -0.096485533 5
0.13829607 2.0913489 -0.10259906 5
0.16235599 2.1448901 -0.10904747 5
0.14902428 2.044981 -0.096615173 5
0.16906756 2.08097 -0.10092624 5
0.18905953 2.1148574 -0.10498758 5
0.2056255 2.134177 -0.10726827 5
0.22296715 2.1552761 -0.10977931 5
0.23360229 2.1513708 -0.10923139 5
0.22254455 2.0719969 -0.099429779 5
0.23014352 2.0595198 -0.097858854 5
0.2727581 2.1640055 -0.11066129 5
0.29858121 2.2091734 -0.11619411 5
0.31308022 2.216188 -0.11705721 5
0.32738146 2.2221484 -0.11780576 5
0.32633886 2.1808007 -0.11275961 5
0.33142063 2.1593189 -0.11016629 5
0.33466312 2.1331398 -0.10700888 5
0.33858755 2.1098025 -0.10421292 5
0.32434866 2.0359163 -0.095213257 5
0.3264344 2.0099194 -0.092110701 5
0.33576927 2.0044696 -0.091547795 5
0.33355936 1.9682684 -0.087209858 5
0.32278797 1.910805 -0.080258749 5
0.35379276 1.9628021 -0.086813189 5
0.33868328 1.896227 -0.078752644 5
0.3487564 1.894408 -0.07869301 5
0.36485371 1.9072334 -0.080457725 5
0.38189289 1.9217542 -0.082449026 5
0.40106872 1.9406989 -0.085006408 5
0.39769325 1.9065455 -0.080993421 5
0.41226849 1.9143544 -0.082198389 5
0.41645309 1.8984437 -0.080468543 5
0.41063711 1.8608135 -0.07604114 5
0.41850623 1.8540031 -0.075459965 5
0.42631742 1.8471524 -0.074885078 5
0.42427078 1.8196145 -0.071731992 5
0.43184063 1.8127428 -0.071172811 5
0.42974004 1.7861983 -0.068153448 5
0.42557403 1.7561729 -0.064697959 5
0.44211248 1.7679462 -0.066511996 5
0.45066294 1.7636499 -0.066315703 5
0.45918718 1.7593018 -0.06612476 5
0.47185859 1.7628113 -0.06694255 5
0.48366043 1.7644669 -0.067540847 5
0.48602161 1.7485648 -0.06591741 5
0.4997296 1.7535747 -0.066970222 5
0.50334167 1.7402526 -0.065693609 5
0.51074195 1.7338535 -0.065312184 5
0.52601862 1.7412002 -0.066710554 5
0.52539325 1.720938 -0.064566292 5
0.56349754 1.766609 -0.070955075 5
0.53371334 1.6976386 -0.062515743 5
0.56454349 1.7301544 -0.06724868 5
0.58067942 1.7378048 -0.06877654 5
0.5616709 1.6888244 -0.062911533 5
0.58196104 1.7031149 -0.065333284 5
0.60138071 1.7155346 -0.067536794 5
0.59985888 1.6952657 -0.065445714 5
0.59866941 1.6758952 -0.063472398 5
0.60444951 1.6673362 -0.062937327 5
0.62128997 1.6752236 -0.064608596 5
0.62870967 1.669014 -0.064414047 5
0.64345229 1.6733787 -0.065653987 5
0.62627459 1.6320732 -0.060745172 5
0.61208975 1.5958825 -0.056504436 5
0.63528514 1.6123159 -0.059408851 5
0.64112556 1.6044321 -0.059023581 5
0.64394784 1.5925274 -0.05809515 5
0.65202188 1.5877939 -0.058159806 5
0.66367579 1.5877594 -0.058887906 5
0.66688609 1.5765924 -0.058085538 5
0.67609704 1.5732775 -0.058385231 5
0.68960667 1.5753617 -0.059457608 5
0.68644416 1.5563428 -0.057574935 5
0.716802 1.5791711 -0.061617695 5
0.71413136 1.5608846 -0.059855424 5
0.74042428 1.5779018 -0.063141264 5
0.75866055 1.5847389 -0.065007456 5
0.76672924 1.5792696 -0.065125145 5
0.76505625 1.5624349 -0.063603692 5
0.78343046 1.5689225 -0.065486856 5
0.80060697 1.5737385 -0.067156665 5
0.78813195 1.5449874 -0.063896187 5
0.80130434 1.545225 -0.064918913 5
0.80178797 1.5313958 -0.063862376 5
0.80821276 1.5241755 -0.063798703 5
0.81391037 1.5161945 -0.063630648 5
0.8195504 1.5081866 -0.063467748 5
0.83063293 1.505895 -0.064189412 5
0.84172678 1.503511 -0.064917006 5
0.83612311 1.4840087 -0.063010789 5
0.84013081 1.4744887 -0.06264881 5
0.83701622 1.4579523 -0.061190762 5
0.82594407 1.4338316 -0.058524676 5
0.79536629 1.3911935 -0.052884854 5
0.81165564 1.3943737 -0.054522298 5
0.80998552 1.3803028 -0.053407915 5
0.80528224 1.3635734 -0.051855303 5
0.81282032 1.3584108 -0.052184045 5
0.82326901 1.3558753 -0.052960478 5
0.83741498 1.3565792 -0.054296128 5
0.84419131 1.3505331 -0.054531239 5
0.85615408 1.3490399 -0.055547513 5
0.86513996 1.3448281 -0.056126483 5
0.86431837 1.3321214 -0.055267997 5
0.87247491 1.3271803 -0.055746309 5
0.87375998 1.3164275 -0.055229194 5
0.8688345 1.3006222 -0.053825215 5
0.8729881 1.2924649 -0.053760536 5
0.88249421 1.2886647 -0.054481305 5
0.88655937 1.2804432 -0.054426409 5
0.88120282 1.2648226 -0.053034492 5
0.88197196 1.2541856 -0.05253946 5
0.89604473 1.2538712 -0.053952493 5
0.89274573 1.2401961 -0.052905537 5
0.89568329 1.2313637 -0.052759007 5
0.89456356 1.2195711 -0.052054331 5
0.9021666 1.2142762 -0.052590594 5
0.89685774 1.1996137 -0.051329024 5
0.91002369 1.198313 -0.052664347 5
0.90452707 1.1837304 -0.051408097 5
0.91276836 1.1788831 -0.052076519 5
0.90624511 1.1638508 -0.050711095 5
0.91192424 1.1572824 -0.051048175 5
0.92169678 1.1534344 -0.051958539 5
0.92897713 1.1478565 -0.052534074 5
0.94122851 1.1454704 -0.053799257 5
0.93510413 1.1311537 -0.052560881 5
0.93472421 1.1206626 -0.052122965 5
0.94100046 1.1144181 -0.05260355 5
0.94893503 1.1091684 -0.053318925 5
0.95345557 1.1017843 -0.053580925 5
0.95196891 1.0907941 -0.053042114 5
0.95295799 1.0813674 -0.052851036 5
0.94958854 1.069451 -0.05208572 5
0.95300591 1.0615678 -0.052246571 5
0.94946229 1.0497453 -0.051484764 5
0.94928682 1.0399326 -0.051188074 5
0.9464283 1.0287075 -0.050544992 5
0.93911648 1.015169 -0.049320653 5
0.93518674 1.0036212 -0.048561908 5
0.92852783 0.99075341 -0.047452889 5
0.92175698 0.97799003 -0.046342991 5
0.92547929 0.97077239 -0.046639964 5
0.91940796 0.95860445 -0.045648038 5
0.92212307 0.95095885 -0.045833178 5
0.93102968 0.94636261 -0.046848185 5
0.9372406 0.94038451 -0.047515407 5
0.93983531 0.93264723 -0.047714226 5
0.94867504 0.92784607 -0.048747875 5
0.96020544 0.92420483 -0.050145574 5
0.96269238 0.916345 -0.050359569 5
0.96240807 0.90726209 -0.050218724 5
0.96478641 0.8994 -0.050439216 5
0.96346831 0.8899554 -0.050183363 5
0.96664989 0.88248622 -0.050530292 5
0.96520507 0.87308609 -0.050278671 5
0.9692018 0.86598349 -0.050753169 5
0.96947479 0.85736632 -0.050748013 5
0.97430217 0.85059255 -0.051351912 5
0.97076774 0.84053826 -0.050866522 5
0.97271955 0.8326714 -0.05111248 5
0.97369218 0.82444978 -0.051239647 5
0.98485398 0.82000804 -0.052716471 5
0.97080731 0.80633616 -0.050888769 5
0.97067153 0.79782891 -0.050899819 5
0.97610164 0.79129636 -0.051652834 5
0.97116578 0.7811892 -0.051051795 5
0.97462308 0.77399039 -0.051564947 5
0.98086715 0.76769221 -0.052455112 5
0.97952092 0.75890702 -0.052355468 5
0.9752748 0.74926054 -0.051882684 5
0.97854376 0.74201477 -0.052410282 5
0.97702003 0.73331332 -0.052315094 5
0.98304975 0.72688669 -0.053227067 5
0.9747467 0.71628308 -0.052254289 5
0.9749558 0.70821214 -0.052415587 5
0.97128665 0.69910002 -0.052072406 5
0.95605695 0.6869601 -0.050204359 5
0.96855259 0.68230504 -0.052021801 5
0.96758091 0.67407364 -0.052062243 5
0.95885634 0.66394889 -0.051079869 5
0.95390952 0.65487671 -0.050607108 5
0.95951509 0.64838314 -0.051548898 5
0.95155525 0.63872325 -0.050690062 5
0.95610464 0.63198131 -0.051509909 5
0.95480204 0.62393236 -0.051556751 5
0.95635724 0.61652255 -0.051995166 5
0.94232512 0.60592651 -0.050349593 5
0.93988109 0.59782225 -0.050265722 5
0.94614553 0.5914377 -0.051362783 5
0.91826224 0.57865554 -0.047863066 5
0.9468627 0.5763675 -0.051994681 5
0.95008063 0.56934553 -0.052711144 5
